ply
format ascii 1.0
comment World Studio dataset loft_04 v3 - gaussian field (3DGS, SH deg 0)
element vertex 471
property float x
property float y
property float z
property float nx
property float ny
property float nz
property float f_dc_0
property float f_dc_1
property float f_dc_2
property float opacity
property float scale_0
property float scale_1
property float scale_2
property float rot_0
property float rot_1
property float rot_2
property float rot_3
end_header
-2.67269 1.90000 0.92279 0 0 0 -0.36969 -0.55365 -0.12823 1.26567 -3.53243 -3.53243 -3.53243 1 0 0 0
-2.88075 0.00000 0.80280 0 0 0 -0.44373 -0.61799 -0.21502 1.26567 -3.55662 -3.55662 -3.55662 1 0 0 0
-2.55000 0.02586 1.23516 0 0 0 -0.39873 -0.57889 -0.16227 1.26567 -3.54185 -3.54185 -3.54185 1 0 0 0
-2.72255 1.90000 0.84628 0 0 0 -0.57103 -0.72859 -0.36423 1.26567 -3.59962 -3.59962 -3.59962 1 0 0 0
-2.55000 0.89282 1.31806 0 0 0 -0.71658 -0.85506 -0.53483 1.26567 -3.65116 -3.65116 -3.65116 1 0 0 0
-2.89872 1.90000 1.01455 0 0 0 -0.74444 -0.87926 -0.56749 1.26567 -3.66133 -3.66133 -3.66133 1 0 0 0
-2.77002 0.00000 1.49654 0 0 0 -0.70720 -0.84691 -0.52384 1.26567 -3.64775 -3.64775 -3.64775 1 0 0 0
-2.64369 1.71580 2.00000 0 0 0 -0.49336 -0.66111 -0.27319 1.26567 -3.57316 -3.57316 -3.57316 1 0 0 0
-2.68698 0.09006 0.60000 0 0 0 -0.80769 -0.93422 -0.64162 1.26567 -3.68482 -3.68482 -3.68482 1 0 0 0
-2.55000 0.14135 1.93207 0 0 0 -0.50819 -0.67399 -0.29057 1.26567 -3.57816 -3.57816 -3.57816 1 0 0 0
-2.95000 1.53065 1.92938 0 0 0 -0.12718 -0.34296 0.15602 1.26567 -3.45709 -3.45709 -3.45709 1 0 0 0
-2.55000 0.79497 1.44477 0 0 0 -0.80771 -0.93423 -0.64164 1.26567 -3.68483 -3.68483 -3.68483 1 0 0 0
-2.59014 0.04456 0.60000 0 0 0 -0.52608 -0.68954 -0.31154 1.26567 -3.58422 -3.58422 -3.58422 1 0 0 0
-2.58835 0.37797 2.00000 0 0 0 -0.41701 -0.59477 -0.18370 1.26567 -3.54782 -3.54782 -3.54782 1 0 0 0
-2.57763 0.00000 1.73716 0 0 0 -0.36724 -0.55153 -0.12535 1.26567 -3.53164 -3.53164 -3.53164 1 0 0 0
-2.59202 0.00000 1.78761 0 0 0 -0.55847 -0.71768 -0.34951 1.26567 -3.59529 -3.59529 -3.59529 1 0 0 0
-2.55000 0.91125 1.59254 0 0 0 -0.64483 -0.79271 -0.45073 1.26567 -3.62542 -3.62542 -3.62542 1 0 0 0
-2.55000 0.72244 0.63774 0 0 0 -0.28916 -0.48369 -0.03384 1.26567 -3.50678 -3.50678 -3.50678 1 0 0 0
-2.65884 1.90000 1.23433 0 0 0 -0.23004 -0.43233 0.03546 1.26567 -3.48835 -3.48835 -3.48835 1 0 0 0
-2.66444 0.41065 0.60000 0 0 0 -0.59593 -0.75023 -0.39342 1.26567 -3.60825 -3.60825 -3.60825 1 0 0 0
-2.55000 1.33054 1.82957 0 0 0 -0.36278 -0.54765 -0.12013 1.26567 -3.53021 -3.53021 -3.53021 1 0 0 0
-2.62577 0.00000 1.96701 0 0 0 -0.62993 -0.77977 -0.43327 1.26567 -3.62015 -3.62015 -3.62015 1 0 0 0
-2.77688 0.68855 2.00000 0 0 0 -0.15699 -0.36885 0.12108 1.26567 -3.46605 -3.46605 -3.46605 1 0 0 0
-2.74864 1.90000 0.78509 0 0 0 -0.46099 -0.63298 -0.23524 1.26567 -3.56234 -3.56234 -3.56234 1 0 0 0
-2.78094 1.47882 2.00000 0 0 0 -0.55461 -0.71433 -0.34498 1.26567 -3.59397 -3.59397 -3.59397 1 0 0 0
-2.95000 0.92887 0.76221 0 0 0 -0.78968 -0.91856 -0.62051 1.26567 -3.67808 -3.67808 -3.67808 1 0 0 0
-2.88233 0.00000 0.93239 0 0 0 -0.14868 -0.36163 0.13083 1.26567 -3.46354 -3.46354 -3.46354 1 0 0 0
-2.91286 0.00000 1.39936 0 0 0 -0.58825 -0.74356 -0.38441 1.26567 -3.60558 -3.60558 -3.60558 1 0 0 0
-2.65478 1.22843 2.00000 0 0 0 -0.67180 -0.81615 -0.48235 1.26567 -3.63502 -3.63502 -3.63502 1 0 0 0
-2.70685 1.63163 2.00000 0 0 0 -0.30586 -0.49820 -0.05342 1.26567 -3.51205 -3.51205 -3.51205 1 0 0 0
-2.55000 1.46094 1.24702 0 0 0 -0.73086 -0.86746 -0.55156 1.26567 -3.65636 -3.65636 -3.65636 1 0 0 0
-2.74608 1.90000 1.49182 0 0 0 -0.11677 -0.33391 0.16823 1.26567 -3.45397 -3.45397 -3.45397 1 0 0 0
-2.61358 1.90000 1.62342 0 0 0 -0.73619 -0.87209 -0.55782 1.26567 -3.65831 -3.65831 -3.65831 1 0 0 0
-2.55000 0.52821 1.61809 0 0 0 -0.73746 -0.87320 -0.55930 1.26567 -3.65877 -3.65877 -3.65877 1 0 0 0
-2.66120 0.39501 2.00000 0 0 0 -0.67689 -0.82057 -0.48831 1.26567 -3.63684 -3.63684 -3.63684 1 0 0 0
-2.95000 1.40576 0.77443 0 0 0 -0.33530 -0.52378 -0.08792 1.26567 -3.52140 -3.52140 -3.52140 1 0 0 0
-2.77596 0.75655 0.60000 0 0 0 -0.41686 -0.59464 -0.18352 1.26567 -3.54777 -3.54777 -3.54777 1 0 0 0
-2.86147 1.05572 0.60000 0 0 0 -0.70967 -0.84905 -0.52673 1.26567 -3.64865 -3.64865 -3.64865 1 0 0 0
-2.82525 0.53934 0.60000 0 0 0 -0.16162 -0.37288 0.11565 1.26567 -3.46745 -3.46745 -3.46745 1 0 0 0
-2.65631 0.11000 0.60000 0 0 0 -0.09995 -0.31930 0.18794 1.26567 -3.44897 -3.44897 -3.44897 1 0 0 0
-2.57806 1.90000 0.71872 0 0 0 -0.42104 -0.59827 -0.18842 1.26567 -3.54914 -3.54914 -3.54914 1 0 0 0
-2.95000 0.65032 0.90054 0 0 0 -0.18912 -0.39677 0.08343 1.26567 -3.47580 -3.47580 -3.47580 1 0 0 0
-2.85271 1.90000 1.58901 0 0 0 -0.52497 -0.68857 -0.31024 1.26567 -3.58384 -3.58384 -3.58384 1 0 0 0
-2.55000 0.35669 0.74985 0 0 0 -0.64942 -0.79670 -0.45611 1.26567 -3.62704 -3.62704 -3.62704 1 0 0 0
-2.82344 1.90000 0.63175 0 0 0 -0.67230 -0.81659 -0.48293 1.26567 -3.63519 -3.63519 -3.63519 1 0 0 0
-2.63285 1.43083 2.00000 0 0 0 -0.68808 -0.83029 -0.50143 1.26567 -3.64085 -3.64085 -3.64085 1 0 0 0
-2.55000 0.54422 1.96152 0 0 0 -0.37395 -0.55736 -0.13323 1.26567 -3.53381 -3.53381 -3.53381 1 0 0 0
-2.95000 0.94706 1.81609 0 0 0 -0.76364 -0.89595 -0.59000 1.26567 -3.66841 -3.66841 -3.66841 1 0 0 0
-2.55000 1.17153 1.17933 0 0 0 -0.30581 -0.49815 -0.05335 1.26567 -3.51203 -3.51203 -3.51203 1 0 0 0
-2.55000 1.86118 1.16227 0 0 0 -0.18121 -0.38990 0.09269 1.26567 -3.47339 -3.47339 -3.47339 1 0 0 0
-2.95000 1.49815 1.18900 0 0 0 -0.08231 -0.30397 0.20862 1.26567 -3.44375 -3.44375 -3.44375 1 0 0 0
-2.70252 0.00000 1.83759 0 0 0 -0.69816 -0.83905 -0.51324 1.26567 -3.64448 -3.64448 -3.64448 1 0 0 0
-2.58976 1.90000 1.81372 0 0 0 -0.13353 -0.34847 0.14858 1.26567 -3.45899 -3.45899 -3.45899 1 0 0 0
-2.71786 1.90000 1.37312 0 0 0 -0.18764 -0.39548 0.08516 1.26567 -3.47534 -3.47534 -3.47534 1 0 0 0
-2.76322 0.34331 2.00000 0 0 0 -0.56945 -0.72722 -0.36238 1.26567 -3.59907 -3.59907 -3.59907 1 0 0 0
-2.95000 1.38740 1.18596 0 0 0 -0.40102 -0.58088 -0.16495 1.26567 -3.54259 -3.54259 -3.54259 1 0 0 0
-2.92353 1.47807 0.60000 0 0 0 -0.47926 -0.64886 -0.25666 1.26567 -3.56843 -3.56843 -3.56843 1 0 0 0
-2.59597 1.74331 0.60000 0 0 0 -0.67384 -0.81792 -0.48474 1.26567 -3.63574 -3.63574 -3.63574 1 0 0 0
-2.55000 0.48435 1.81943 0 0 0 -0.19235 -0.39957 0.07964 1.26567 -3.47678 -3.47678 -3.47678 1 0 0 0
-2.81341 0.00000 1.62119 0 0 0 -0.23899 -0.44010 0.02497 1.26567 -3.49112 -3.49112 -3.49112 1 0 0 0
-2.71731 1.02989 2.00000 0 0 0 -0.54924 -0.70967 -0.33869 1.26567 -3.59213 -3.59213 -3.59213 1 0 0 0
-2.90038 1.37983 2.00000 0 0 0 -0.33947 -0.52740 -0.09281 1.26567 -3.52273 -3.52273 -3.52273 1 0 0 0
-2.67063 1.90000 1.94910 0 0 0 -0.38583 -0.56768 -0.14715 1.26567 -3.53766 -3.53766 -3.53766 1 0 0 0
-2.73744 0.00000 1.94350 0 0 0 -0.64805 -0.79551 -0.45450 1.26567 -3.62656 -3.62656 -3.62656 1 0 0 0
-2.55000 0.72745 1.96265 0 0 0 -0.62697 -0.77720 -0.42980 1.26567 -3.61911 -3.61911 -3.61911 1 0 0 0
-2.76526 0.00000 1.86844 0 0 0 -0.36100 -0.54611 -0.11805 1.26567 -3.52964 -3.52964 -3.52964 1 0 0 0
-2.87857 0.00000 1.73176 0 0 0 -0.70360 -0.84378 -0.51962 1.26567 -3.64645 -3.64645 -3.64645 1 0 0 0
-2.58967 0.00000 0.90331 0 0 0 -0.24751 -0.44750 0.01498 1.26567 -3.49376 -3.49376 -3.49376 1 0 0 0
-2.95000 1.05342 1.55335 0 0 0 -0.22540 -0.42829 0.04090 1.26567 -3.48692 -3.48692 -3.48692 1 0 0 0
-2.84528 0.54185 0.60000 0 0 0 -0.61809 -0.76948 -0.41938 1.26567 -3.61599 -3.61599 -3.61599 1 0 0 0
-2.85200 1.90000 1.27431 0 0 0 -0.36608 -0.55052 -0.12400 1.26567 -3.53127 -3.53127 -3.53127 1 0 0 0
-2.82922 1.90000 1.97076 0 0 0 -0.60722 -0.76004 -0.40665 1.26567 -3.61219 -3.61219 -3.61219 1 0 0 0
-2.80173 0.00000 1.35375 0 0 0 -0.26983 -0.46689 -0.01118 1.26567 -3.50072 -3.50072 -3.50072 1 0 0 0
-2.58568 0.98685 0.60000 0 0 0 -0.19996 -0.40619 0.07072 1.26567 -3.47911 -3.47911 -3.47911 1 0 0 0
-2.89427 1.32522 0.60000 0 0 0 -0.64249 -0.79069 -0.44799 1.26567 -3.62459 -3.62459 -3.62459 1 0 0 0
-2.66780 0.50714 2.00000 0 0 0 -0.62284 -0.77361 -0.42496 1.26567 -3.61766 -3.61766 -3.61766 1 0 0 0
-2.77250 1.90000 0.70051 0 0 0 -0.30613 -0.49844 -0.05373 1.26567 -3.51213 -3.51213 -3.51213 1 0 0 0
-2.94262 1.77360 2.00000 0 0 0 -0.27204 -0.46882 -0.01377 1.26567 -3.50141 -3.50141 -3.50141 1 0 0 0
-2.73611 0.00000 0.73573 0 0 0 -0.32150 -0.51179 -0.07175 1.26567 -3.51700 -3.51700 -3.51700 1 0 0 0
-2.55000 1.11356 1.75053 0 0 0 -0.19077 -0.39820 0.08149 1.26567 -3.47630 -3.47630 -3.47630 1 0 0 0
-2.73666 1.06019 2.00000 0 0 0 -0.21504 -0.41929 0.05304 1.26567 -3.48373 -3.48373 -3.48373 1 0 0 0
-2.95000 0.99207 1.36695 0 0 0 -0.42547 -0.60212 -0.19361 1.26567 -3.55060 -3.55060 -3.55060 1 0 0 0
-2.72379 1.90000 1.18312 0 0 0 -0.60363 -0.75692 -0.40244 1.26567 -3.61093 -3.61093 -3.61093 1 0 0 0
-2.64827 0.92119 2.00000 0 0 0 -0.82122 -0.94597 -0.65748 1.26567 -3.68992 -3.68992 -3.68992 1 0 0 0
-2.71891 0.77274 2.00000 0 0 0 -0.53941 -0.70112 -0.32716 1.26567 -3.58876 -3.58876 -3.58876 1 0 0 0
-2.80104 1.62489 0.60000 0 0 0 -0.70647 -0.84627 -0.52298 1.26567 -3.64749 -3.64749 -3.64749 1 0 0 0
-2.71560 0.90030 2.00000 0 0 0 -0.28482 -0.47992 -0.02875 1.26567 -3.50541 -3.50541 -3.50541 1 0 0 0
-2.81163 0.00000 1.84480 0 0 0 -0.67014 -0.81470 -0.48039 1.26567 -3.63442 -3.63442 -3.63442 1 0 0 0
-2.95000 1.04653 0.74938 0 0 0 -0.70560 -0.84551 -0.52196 1.26567 -3.64717 -3.64717 -3.64717 1 0 0 0
-2.58502 0.29346 0.60000 0 0 0 -0.35097 -0.53740 -0.10629 1.26567 -3.52641 -3.52641 -3.52641 1 0 0 0
-2.55000 1.32057 0.78708 0 0 0 -0.83935 -0.96172 -0.67873 1.26567 -3.69680 -3.69680 -3.69680 1 0 0 0
-2.95000 1.71104 1.17985 0 0 0 -0.70720 -0.84691 -0.52384 1.26567 -3.64775 -3.64775 -3.64775 1 0 0 0
-2.64680 0.00000 1.19690 0 0 0 -0.26238 -0.46042 -0.00245 1.26567 -3.49839 -3.49839 -3.49839 1 0 0 0
-2.95000 0.90892 0.60004 0 0 0 -0.34970 -0.53629 -0.10480 1.26567 -3.52600 -3.52600 -3.52600 1 0 0 0
-2.95000 1.57089 0.79937 0 0 0 -0.22112 -0.42457 0.04592 1.26567 -3.48560 -3.48560 -3.48560 1 0 0 0
-2.63922 1.61806 2.00000 0 0 0 -0.18168 -0.39031 0.09214 1.26567 -3.47353 -3.47353 -3.47353 1 0 0 0
-2.87486 0.20242 2.00000 0 0 0 -0.83246 -0.95574 -0.67066 1.26567 -3.69418 -3.69418 -3.69418 1 0 0 0
-2.95000 0.76509 1.38868 0 0 0 -0.60085 -0.75450 -0.39918 1.26567 -3.60996 -3.60996 -3.60996 1 0 0 0
-2.76850 1.90000 0.86172 0 0 0 -0.82529 -0.94951 -0.66225 1.26567 -3.69146 -3.69146 -3.69146 1 0 0 0
-2.55000 1.28319 0.60283 0 0 0 -0.46802 -0.63909 -0.24348 1.26567 -3.56468 -3.56468 -3.56468 1 0 0 0
-2.95000 0.93664 1.93020 0 0 0 -0.19970 -0.40596 0.07102 1.26567 -3.47903 -3.47903 -3.47903 1 0 0 0
-2.69864 1.90000 1.67357 0 0 0 -0.19575 -0.40253 0.07565 1.26567 -3.47782 -3.47782 -3.47782 1 0 0 0
-2.55000 1.39198 1.87329 0 0 0 -0.54887 -0.70934 -0.33826 1.26567 -3.59200 -3.59200 -3.59200 1 0 0 0
-2.79293 1.16013 0.60000 0 0 0 -0.69114 -0.83295 -0.50502 1.26567 -3.64195 -3.64195 -3.64195 1 0 0 0
-2.87055 1.05423 0.60000 0 0 0 -0.32775 -0.51722 -0.07908 1.26567 -3.51899 -3.51899 -3.51899 1 0 0 0
-2.95000 0.67796 0.71024 0 0 0 -0.44775 -0.62149 -0.21973 1.26567 -3.55795 -3.55795 -3.55795 1 0 0 0
-2.55000 1.28734 0.61684 0 0 0 -0.62303 -0.77378 -0.42518 1.26567 -3.61773 -3.61773 -3.61773 1 0 0 0
-2.73269 1.90000 1.40924 0 0 0 -0.10592 -0.32448 0.18095 1.26567 -3.45074 -3.45074 -3.45074 1 0 0 0
-2.92559 1.77535 0.60000 0 0 0 -0.18267 -0.39117 0.09098 1.26567 -3.47383 -3.47383 -3.47383 1 0 0 0
-2.64948 0.34525 2.00000 0 0 0 -0.58612 -0.74170 -0.38192 1.26567 -3.60484 -3.60484 -3.60484 1 0 0 0
-2.55000 0.56069 1.67943 0 0 0 -0.59562 -0.74996 -0.39305 1.26567 -3.60814 -3.60814 -3.60814 1 0 0 0
-2.55000 0.44705 1.10544 0 0 0 -0.73703 -0.87283 -0.55881 1.26567 -3.65862 -3.65862 -3.65862 1 0 0 0
-2.55000 1.50578 0.70473 0 0 0 -0.11608 -0.33331 0.16903 1.26567 -3.45377 -3.45377 -3.45377 1 0 0 0
-2.74864 1.83082 0.60000 0 0 0 -0.31762 -0.50842 -0.06720 1.26567 -3.51577 -3.51577 -3.51577 1 0 0 0
-2.95000 1.64036 1.04979 0 0 0 -0.28369 -0.47894 -0.02743 1.26567 -3.50506 -3.50506 -3.50506 1 0 0 0
-2.55000 0.00192 1.70588 0 0 0 -0.54266 -0.70395 -0.33098 1.26567 -3.58987 -3.58987 -3.58987 1 0 0 0
-2.68642 1.16678 2.00000 0 0 0 -0.72661 -0.86377 -0.54658 1.26567 -3.65481 -3.65481 -3.65481 1 0 0 0
-2.55000 1.84953 0.85062 0 0 0 -0.59567 -0.75001 -0.39311 1.26567 -3.60816 -3.60816 -3.60816 1 0 0 0
-2.76637 0.00000 1.23600 0 0 0 -0.75426 -0.88779 -0.57900 1.26567 -3.66494 -3.66494 -3.66494 1 0 0 0
-2.87368 0.00000 1.43945 0 0 0 -0.46346 -0.63513 -0.23814 1.26567 -3.56316 -3.56316 -3.56316 1 0 0 0
-2.79213 0.03566 0.60000 0 0 0 -0.48568 -0.65443 -0.26418 1.26567 -3.57058 -3.57058 -3.57058 1 0 0 0
-2.55000 1.23566 0.89230 0 0 0 -0.11045 -0.32841 0.17564 1.26567 -3.45209 -3.45209 -3.45209 1 0 0 0
-2.60421 1.29878 2.00000 0 0 0 -0.61875 -0.77005 -0.42016 1.26567 -3.61622 -3.61622 -3.61622 1 0 0 0
-2.76748 0.00000 1.06650 0 0 0 -0.10477 -0.32349 0.18228 1.26567 -3.45040 -3.45040 -3.45040 1 0 0 0
-2.75758 0.00000 1.44324 0 0 0 -0.20927 -0.41428 0.05980 1.26567 -3.48196 -3.48196 -3.48196 1 0 0 0
-2.55711 0.00000 0.98540 0 0 0 -0.68586 -0.82836 -0.49882 1.26567 -3.64005 -3.64005 -3.64005 1 0 0 0
-2.95000 0.19953 1.61658 0 0 0 -0.79728 -0.92517 -0.62943 1.26567 -3.68092 -3.68092 -3.68092 1 0 0 0
-2.68989 0.72990 2.00000 0 0 0 -0.19715 -0.40375 0.07401 1.26567 -3.47825 -3.47825 -3.47825 1 0 0 0
-2.71240 1.90000 0.88579 0 0 0 -0.81998 -0.94489 -0.65603 1.26567 -3.68945 -3.68945 -3.68945 1 0 0 0
-2.57180 0.55894 0.60000 0 0 0 -0.59722 -0.75135 -0.39493 1.26567 -3.60870 -3.60870 -3.60870 1 0 0 0
-2.95000 0.55791 1.33216 0 0 0 -0.70201 -0.84239 -0.51775 1.26567 -3.64587 -3.64587 -3.64587 1 0 0 0
-2.95000 0.05673 0.65909 0 0 0 -0.81560 -0.94109 -0.65090 1.26567 -3.68780 -3.68780 -3.68780 1 0 0 0
-2.69269 0.00000 1.63211 0 0 0 -0.62814 -0.77822 -0.43117 1.26567 -3.61952 -3.61952 -3.61952 1 0 0 0
-2.63653 0.00000 1.88011 0 0 0 -0.15108 -0.36372 0.12801 1.26567 -3.46426 -3.46426 -3.46426 1 0 0 0
-2.95000 1.78717 1.70896 0 0 0 -0.43822 -0.61320 -0.20855 1.26567 -3.55480 -3.55480 -3.55480 1 0 0 0
-2.86630 0.13655 2.00000 0 0 0 -0.38716 -0.56884 -0.14871 1.26567 -3.53809 -3.53809 -3.53809 1 0 0 0
-2.95000 0.96962 1.25835 0 0 0 -0.26896 -0.46614 -0.01017 1.26567 -3.50045 -3.50045 -3.50045 1 0 0 0
-2.76671 0.49118 2.00000 0 0 0 -0.21146 -0.41618 0.05723 1.26567 -3.48263 -3.48263 -3.48263 1 0 0 0
-2.95000 1.32690 1.11181 0 0 0 -0.75085 -0.88483 -0.57500 1.26567 -3.66369 -3.66369 -3.66369 1 0 0 0
-2.63940 0.73704 2.00000 0 0 0 -0.66976 -0.81437 -0.47995 1.26567 -3.63428 -3.63428 -3.63428 1 0 0 0
-2.79052 0.00000 1.37634 0 0 0 -0.45971 -0.63187 -0.23374 1.26567 -3.56191 -3.56191 -3.56191 1 0 0 0
-2.62982 1.82858 0.60000 0 0 0 -0.38779 -0.56939 -0.14945 1.26567 -3.53829 -3.53829 -3.53829 1 0 0 0
-2.68108 1.48235 2.00000 0 0 0 -0.24249 -0.44314 0.02087 1.26567 -3.49221 -3.49221 -3.49221 1 0 0 0
-2.82911 1.45562 2.00000 0 0 0 -0.54548 -0.70639 -0.33428 1.26567 -3.59084 -3.59084 -3.59084 1 0 0 0
-2.55000 0.72032 1.51373 0 0 0 -0.59486 -0.74929 -0.39215 1.26567 -3.60787 -3.60787 -3.60787 1 0 0 0
-2.80831 1.03695 2.00000 0 0 0 -0.46142 -0.63336 -0.23575 1.26567 -3.56248 -3.56248 -3.56248 1 0 0 0
-2.62000 0.57796 0.60000 0 0 0 -0.35564 -0.54145 -0.11177 1.26567 -3.52791 -3.52791 -3.52791 1 0 0 0
-2.88869 0.00000 1.79331 0 0 0 -0.61771 -0.76916 -0.41895 1.26567 -3.61586 -3.61586 -3.61586 1 0 0 0
-2.95000 1.37625 0.92550 0 0 0 -0.48418 -0.65314 -0.26243 1.26567 -3.57008 -3.57008 -3.57008 1 0 0 0
-2.55000 0.34280 1.49389 0 0 0 -0.41580 -0.59372 -0.18228 1.26567 -3.54743 -3.54743 -3.54743 1 0 0 0
-2.64913 1.90000 1.75977 0 0 0 -0.33692 -0.52519 -0.08982 1.26567 -3.52192 -3.52192 -3.52192 1 0 0 0
-2.89464 1.83038 0.60000 0 0 0 -0.63515 -0.78430 -0.43938 1.26567 -3.62199 -3.62199 -3.62199 1 0 0 0
-2.84044 1.47454 2.00000 0 0 0 -0.76693 -0.89880 -0.59384 1.26567 -3.66962 -3.66962 -3.66962 1 0 0 0
-2.89001 1.90000 1.28292 0 0 0 -0.69408 -0.83550 -0.50846 1.26567 -3.64301 -3.64301 -3.64301 1 0 0 0
-2.59871 0.00000 1.85100 0 0 0 -0.11368 -0.33122 0.17185 1.26567 -3.45305 -3.45305 -3.45305 1 0 0 0
-2.66680 0.00000 1.98903 0 0 0 -0.61366 -0.76563 -0.41419 1.26567 -3.61444 -3.61444 -3.61444 1 0 0 0
-2.59293 0.06103 2.00000 0 0 0 -0.25489 -0.45392 0.00633 1.26567 -3.49606 -3.49606 -3.49606 1 0 0 0
-2.72600 0.00000 1.31490 0 0 0 -0.13710 -0.35157 0.14440 1.26567 -3.46006 -3.46006 -3.46006 1 0 0 0
-2.55000 0.93943 1.74627 0 0 0 -0.56740 -0.72544 -0.35997 1.26567 -3.59836 -3.59836 -3.59836 1 0 0 0
-2.95000 0.70347 1.28115 0 0 0 -0.74509 -0.87983 -0.56825 1.26567 -3.66157 -3.66157 -3.66157 1 0 0 0
-2.63677 1.90000 0.85727 0 0 0 -0.35092 -0.53735 -0.10623 1.26567 -3.52639 -3.52639 -3.52639 1 0 0 0
-2.55000 0.40645 1.45641 0 0 0 -0.35324 -0.53937 -0.10895 1.26567 -3.52714 -3.52714 -3.52714 1 0 0 0
-2.55000 1.83264 0.62256 0 0 0 -0.47358 -0.64393 -0.25000 1.26567 -3.56654 -3.56654 -3.56654 1 0 0 0
-2.95000 1.55612 0.87400 0 0 0 -0.39971 -0.57975 -0.16342 1.26567 -3.54217 -3.54217 -3.54217 1 0 0 0
-2.61876 1.90000 1.70315 0 0 0 -0.37705 -0.56005 -0.13686 1.26567 -3.53481 -3.53481 -3.53481 1 0 0 0
-2.74143 0.77546 2.00000 0 0 0 -0.75758 -0.89068 -0.58289 1.26567 -3.66617 -3.66617 -3.66617 1 0 0 0
-2.69778 0.76415 0.60000 0 0 0 -0.29046 -0.48482 -0.03537 1.26567 -3.50719 -3.50719 -3.50719 1 0 0 0
-2.55000 1.82096 0.96085 0 0 0 -0.48641 -0.65507 -0.26504 1.26567 -3.57083 -3.57083 -3.57083 1 0 0 0
-2.58461 1.90000 0.65012 0 0 0 -0.07746 -0.29975 0.21430 1.26567 -3.44231 -3.44231 -3.44231 1 0 0 0
-2.88355 0.20409 2.00000 0 0 0 -0.79436 -0.92263 -0.62600 1.26567 -3.67983 -3.67983 -3.67983 1 0 0 0
-2.55839 0.68132 0.60000 0 0 0 -0.42164 -0.59880 -0.18913 1.26567 -3.54934 -3.54934 -3.54934 1 0 0 0
-2.88671 1.59081 0.60000 0 0 0 -0.56533 -0.72364 -0.35755 1.26567 -3.59765 -3.59765 -3.59765 1 0 0 0
-2.55000 1.86147 0.94239 0 0 0 -0.44575 -0.61975 -0.21739 1.26567 -3.55729 -3.55729 -3.55729 1 0 0 0
-2.95000 1.77235 1.38838 0 0 0 -0.64757 -0.79510 -0.45395 1.26567 -3.62639 -3.62639 -3.62639 1 0 0 0
-2.67569 1.14431 2.00000 0 0 0 -0.37088 -0.55470 -0.12963 1.26567 -3.53282 -3.53282 -3.53282 1 0 0 0
-2.56218 0.71867 0.60000 0 0 0 -0.39477 -0.57545 -0.15763 1.26567 -3.54056 -3.54056 -3.54056 1 0 0 0
-2.85658 0.71265 0.60000 0 0 0 -0.39325 -0.57413 -0.15584 1.26567 -3.54007 -3.54007 -3.54007 1 0 0 0
-2.72625 0.00000 1.88828 0 0 0 -0.58458 -0.74036 -0.38010 1.26567 -3.60430 -3.60430 -3.60430 1 0 0 0
-2.94973 1.80847 2.00000 0 0 0 -0.52436 -0.68805 -0.30953 1.26567 -3.58364 -3.58364 -3.58364 1 0 0 0
-2.61520 0.00000 1.42197 0 0 0 -0.67246 -0.81672 -0.48312 1.26567 -3.63525 -3.63525 -3.63525 1 0 0 0
-2.89487 1.90000 1.13799 0 0 0 -0.36637 -0.55078 -0.12434 1.26567 -3.53136 -3.53136 -3.53136 1 0 0 0
-2.89923 1.90000 1.62649 0 0 0 -0.30121 -0.49416 -0.04796 1.26567 -3.51058 -3.51058 -3.51058 1 0 0 0
-2.95000 1.36784 1.90057 0 0 0 -0.28444 -0.47959 -0.02831 1.26567 -3.50530 -3.50530 -3.50530 1 0 0 0
-2.55000 1.12430 1.76577 0 0 0 -0.53526 -0.69752 -0.32230 1.26567 -3.58735 -3.58735 -3.58735 1 0 0 0
-2.55002 0.97000 0.60000 0 0 0 -0.27206 -0.46884 -0.01380 1.26567 -3.50142 -3.50142 -3.50142 1 0 0 0
-2.56149 0.97609 2.00000 0 0 0 -0.29009 -0.48450 -0.03493 1.26567 -3.50707 -3.50707 -3.50707 1 0 0 0
-2.59294 1.90000 1.83007 0 0 0 -0.21805 -0.42191 0.04951 1.26567 -3.48466 -3.48466 -3.48466 1 0 0 0
-2.70148 1.90000 1.49991 0 0 0 -0.62647 -0.77676 -0.42921 1.26567 -3.61893 -3.61893 -3.61893 1 0 0 0
-2.93229 0.07913 2.00000 0 0 0 -0.25925 -0.45770 0.00122 1.26567 -3.49741 -3.49741 -3.49741 1 0 0 0
-2.95000 1.02857 1.36789 0 0 0 -0.35506 -0.54095 -0.11109 1.26567 -3.52773 -3.52773 -3.52773 1 0 0 0
-2.55000 0.97069 0.70011 0 0 0 -0.74555 -0.88023 -0.56879 1.26567 -3.66174 -3.66174 -3.66174 1 0 0 0
-2.59461 1.90000 1.55466 0 0 0 -0.64522 -0.79305 -0.45119 1.26567 -3.62555 -3.62555 -3.62555 1 0 0 0
-2.95000 1.36213 0.64395 0 0 0 -0.60738 -0.76017 -0.40683 1.26567 -3.61224 -3.61224 -3.61224 1 0 0 0
-2.95000 0.62531 1.99676 0 0 0 -0.74840 -0.88270 -0.57213 1.26567 -3.66279 -3.66279 -3.66279 1 0 0 0
-2.95000 1.22727 1.80450 0 0 0 -0.38990 -0.57122 -0.15192 1.26567 -3.53898 -3.53898 -3.53898 1 0 0 0
-2.91313 1.19407 2.00000 0 0 0 -0.80360 -0.93067 -0.63683 1.26567 -3.68329 -3.68329 -3.68329 1 0 0 0
-2.69325 1.90000 0.78696 0 0 0 -0.36066 -0.54581 -0.11765 1.26567 -3.52952 -3.52952 -3.52952 1 0 0 0
-2.79384 0.00000 0.89417 0 0 0 -0.12244 -0.33884 0.16158 1.26567 -3.45567 -3.45567 -3.45567 1 0 0 0
-2.73521 0.82069 0.60000 0 0 0 -0.76408 -0.89633 -0.59051 1.26567 -3.66857 -3.66857 -3.66857 1 0 0 0
-2.61929 1.66727 2.00000 0 0 0 -0.20217 -0.40811 0.06813 1.26567 -3.47978 -3.47978 -3.47978 1 0 0 0
-2.56088 0.25292 0.60000 0 0 0 -0.66796 -0.81281 -0.47784 1.26567 -3.63364 -3.63364 -3.63364 1 0 0 0
-2.77852 0.00000 0.81898 0 0 0 -0.25815 -0.45675 0.00251 1.26567 -3.49707 -3.49707 -3.49707 1 0 0 0
-2.95000 1.05514 1.26977 0 0 0 -0.37839 -0.56122 -0.13843 1.26567 -3.53525 -3.53525 -3.53525 1 0 0 0
-2.67474 0.92962 0.60000 0 0 0 -0.57489 -0.73194 -0.36875 1.26567 -3.60095 -3.60095 -3.60095 1 0 0 0
-2.90936 0.00992 2.00000 0 0 0 -0.12953 -0.34500 0.15327 1.26567 -3.45779 -3.45779 -3.45779 1 0 0 0
-2.75454 1.79121 0.60000 0 0 0 -0.13255 -0.34762 0.14973 1.26567 -3.45869 -3.45869 -3.45869 1 0 0 0
-2.67122 1.90000 1.10498 0 0 0 -0.29219 -0.48633 -0.03739 1.26567 -3.50773 -3.50773 -3.50773 1 0 0 0
-2.55000 1.54483 0.69535 0 0 0 -0.24671 -0.44681 0.01592 1.26567 -3.49351 -3.49351 -3.49351 1 0 0 0
-2.95000 1.23664 1.07847 0 0 0 -0.16270 -0.37382 0.11439 1.26567 -3.46777 -3.46777 -3.46777 1 0 0 0
-2.58414 0.00000 0.88650 0 0 0 -0.82728 -0.95123 -0.66458 1.26567 -3.69221 -3.69221 -3.69221 1 0 0 0
-2.70715 0.00000 1.56844 0 0 0 -0.71600 -0.85455 -0.53416 1.26567 -3.65095 -3.65095 -3.65095 1 0 0 0
-2.76842 0.00000 1.09712 0 0 0 -0.79241 -0.92094 -0.62371 1.26567 -3.67910 -3.67910 -3.67910 1 0 0 0
-2.55000 0.35559 1.01350 0 0 0 -0.48239 -0.65158 -0.26033 1.26567 -3.56948 -3.56948 -3.56948 1 0 0 0
-2.79290 0.15748 0.60000 0 0 0 -0.56467 -0.72307 -0.35677 1.26567 -3.59742 -3.59742 -3.59742 1 0 0 0
-2.82437 0.00000 1.47322 0 0 0 -0.77314 -0.90420 -0.60113 1.26567 -3.67192 -3.67192 -3.67192 1 0 0 0
-2.66670 0.00000 1.38196 0 0 0 -0.29119 -0.48546 -0.03622 1.26567 -3.50742 -3.50742 -3.50742 1 0 0 0
-2.75829 0.99344 2.00000 0 0 0 -0.14260 -0.35635 0.13795 1.26567 -3.46171 -3.46171 -3.46171 1 0 0 0
-2.83444 0.00000 1.34576 0 0 0 -0.56356 -0.72211 -0.35548 1.26567 -3.59704 -3.59704 -3.59704 1 0 0 0
-2.87914 0.00000 1.88251 0 0 0 -0.55398 -0.71378 -0.34424 1.26567 -3.59375 -3.59375 -3.59375 1 0 0 0
-2.55000 0.98216 1.55804 0 0 0 -0.26884 -0.46604 -0.01003 1.26567 -3.50041 -3.50041 -3.50041 1 0 0 0
-2.85915 0.00000 1.13463 0 0 0 -0.80906 -0.93541 -0.64323 1.26567 -3.68534 -3.68534 -3.68534 1 0 0 0
-2.68618 1.90000 0.74128 0 0 0 -0.14968 -0.36251 0.12965 1.26567 -3.46384 -3.46384 -3.46384 1 0 0 0
-2.95000 0.21929 1.19239 0 0 0 -0.50597 -0.67207 -0.28797 1.26567 -3.57741 -3.57741 -3.57741 1 0 0 0
-2.95000 1.58791 1.72509 0 0 0 -0.39970 -0.57973 -0.16340 1.26567 -3.54217 -3.54217 -3.54217 1 0 0 0
-2.76621 1.85637 0.60000 0 0 0 -0.81874 -0.94382 -0.65457 1.26567 -3.68899 -3.68899 -3.68899 1 0 0 0
-2.95000 1.72343 1.90830 0 0 0 -0.18461 -0.39285 0.08871 1.26567 -3.47442 -3.47442 -3.47442 1 0 0 0
-2.58704 1.23188 2.00000 0 0 0 -0.38115 -0.56362 -0.14166 1.26567 -3.53614 -3.53614 -3.53614 1 0 0 0
-2.95000 0.62788 1.30224 0 0 0 -0.65537 -0.80187 -0.46309 1.26567 -3.62916 -3.62916 -3.62916 1 0 0 0
-2.74917 1.90000 1.21688 0 0 0 -0.80580 -0.93257 -0.63941 1.26567 -3.68411 -3.68411 -3.68411 1 0 0 0
-2.67944 0.52034 2.00000 0 0 0 -0.36600 -0.55045 -0.12390 1.26567 -3.53124 -3.53124 -3.53124 1 0 0 0
-2.95000 0.22810 0.98237 0 0 0 -0.18235 -0.39089 0.09136 1.26567 -3.47374 -3.47374 -3.47374 1 0 0 0
-2.75487 0.00000 0.89156 0 0 0 -0.57780 -0.73448 -0.37216 1.26567 -3.60196 -3.60196 -3.60196 1 0 0 0
-2.55000 0.91830 0.75629 0 0 0 -0.14939 -0.36225 0.12999 1.26567 -3.46375 -3.46375 -3.46375 1 0 0 0
-2.72318 1.90000 0.83996 0 0 0 -0.17782 -0.38695 0.09667 1.26567 -3.47236 -3.47236 -3.47236 1 0 0 0
-2.60890 1.90000 1.35117 0 0 0 -0.20877 -0.41385 0.06038 1.26567 -3.48181 -3.48181 -3.48181 1 0 0 0
-2.71573 0.45741 0.60000 0 0 0 -0.67239 -0.81666 -0.48304 1.26567 -3.63523 -3.63523 -3.63523 1 0 0 0
-2.77371 1.90000 1.00840 0 0 0 -0.25602 -0.45490 0.00500 1.26567 -3.49641 -3.49641 -3.49641 1 0 0 0
-2.78945 0.00000 1.82552 0 0 0 -0.55996 -0.71898 -0.35125 1.26567 -3.59580 -3.59580 -3.59580 1 0 0 0
-2.59025 1.71328 2.00000 0 0 0 -0.57060 -0.72822 -0.36372 1.26567 -3.59947 -3.59947 -3.59947 1 0 0 0
-2.61052 1.90000 0.75657 0 0 0 -0.25499 -0.45401 0.00621 1.26567 -3.49609 -3.49609 -3.49609 1 0 0 0
-2.92819 1.90000 1.38896 0 0 0 -0.66550 -0.81068 -0.47496 1.26567 -3.63276 -3.63276 -3.63276 1 0 0 0
-2.55000 0.37300 1.22140 0 0 0 -0.53802 -0.69992 -0.32554 1.26567 -3.58829 -3.58829 -3.58829 1 0 0 0
-2.55000 0.56743 0.82648 0 0 0 -0.70028 -0.84089 -0.51573 1.26567 -3.64525 -3.64525 -3.64525 1 0 0 0
-2.87408 0.00000 1.77484 0 0 0 -0.50613 -0.67220 -0.28815 1.26567 -3.57746 -3.57746 -3.57746 1 0 0 0
-2.84080 1.11560 0.60000 0 0 0 -0.29745 -0.49089 -0.04356 1.26567 -3.50939 -3.50939 -3.50939 1 0 0 0
-2.95000 0.64289 1.64681 0 0 0 -0.18631 -0.39433 0.08672 1.26567 -3.47494 -3.47494 -3.47494 1 0 0 0
-2.95000 1.26261 0.62904 0 0 0 -0.09011 -0.31074 0.19948 1.26567 -3.44605 -3.44605 -3.44605 1 0 0 0
-2.95000 1.76032 1.10983 0 0 0 -0.65641 -0.80277 -0.46430 1.26567 -3.62953 -3.62953 -3.62953 1 0 0 0
-2.67178 0.10777 0.60000 0 0 0 -0.61896 -0.77024 -0.42041 1.26567 -3.61630 -3.61630 -3.61630 1 0 0 0
-2.55457 1.90000 1.06965 0 0 0 -0.26460 -0.46235 -0.00505 1.26567 -3.49908 -3.49908 -3.49908 1 0 0 0
-2.58926 1.90000 0.65930 0 0 0 -0.70185 -0.84226 -0.51757 1.26567 -3.64582 -3.64582 -3.64582 1 0 0 0
-2.64776 0.00000 0.77548 0 0 0 -0.30339 -0.49606 -0.05052 1.26567 -3.51127 -3.51127 -3.51127 1 0 0 0
-2.94304 1.00900 0.60000 0 0 0 -0.33437 -0.52297 -0.08683 1.26567 -3.52110 -3.52110 -3.52110 1 0 0 0
-2.70674 0.00000 1.58648 0 0 0 -0.24363 -0.44413 0.01953 1.26567 -3.49256 -3.49256 -3.49256 1 0 0 0
-2.57517 1.80945 2.00000 0 0 0 -0.61664 -0.76822 -0.41769 1.26567 -3.61548 -3.61548 -3.61548 1 0 0 0
-2.57094 1.52448 0.60000 0 0 0 -0.50243 -0.66899 -0.28382 1.26567 -3.57622 -3.57622 -3.57622 1 0 0 0
-2.95000 1.56681 1.25693 0 0 0 -0.63468 -0.78390 -0.43884 1.26567 -3.62183 -3.62183 -3.62183 1 0 0 0
-2.68954 0.33781 0.60000 0 0 0 -0.28682 -0.48165 -0.03109 1.26567 -3.50604 -3.50604 -3.50604 1 0 0 0
-2.88000 1.90000 1.39079 0 0 0 -0.54704 -0.70775 -0.33611 1.26567 -3.59137 -3.59137 -3.59137 1 0 0 0
-2.77712 0.28705 2.00000 0 0 0 -0.44668 -0.62055 -0.21847 1.26567 -3.55759 -3.55759 -3.55759 1 0 0 0
-2.83519 0.86099 0.60000 0 0 0 -0.34535 -0.53251 -0.09970 1.26567 -3.52461 -3.52461 -3.52461 1 0 0 0
-2.67634 0.58860 2.00000 0 0 0 -0.74728 -0.88173 -0.57081 1.26567 -3.66237 -3.66237 -3.66237 1 0 0 0
-2.65289 0.65212 0.60000 0 0 0 -0.65032 -0.79749 -0.45717 1.26567 -3.62736 -3.62736 -3.62736 1 0 0 0
-2.63870 0.19701 0.60000 0 0 0 -0.17340 -0.38311 0.10185 1.26567 -3.47101 -3.47101 -3.47101 1 0 0 0
-2.61672 0.00000 1.74855 0 0 0 -0.68780 -0.83005 -0.50110 1.26567 -3.64075 -3.64075 -3.64075 1 0 0 0
-2.83421 0.00000 0.89026 0 0 0 -0.66794 -0.81279 -0.47781 1.26567 -3.63363 -3.63363 -3.63363 1 0 0 0
-2.56234 0.00000 1.20082 0 0 0 -0.69950 -0.84021 -0.51481 1.26567 -3.64497 -3.64497 -3.64497 1 0 0 0
-2.75602 0.00000 0.79738 0 0 0 -0.25947 -0.45789 0.00097 1.26567 -3.49748 -3.49748 -3.49748 1 0 0 0
-2.78839 0.00000 1.23601 0 0 0 -0.61017 -0.76260 -0.41011 1.26567 -3.61322 -3.61322 -3.61322 1 0 0 0
-2.90228 1.90000 1.70648 0 0 0 -0.34272 -0.53022 -0.09661 1.26567 -3.52377 -3.52377 -3.52377 1 0 0 0
-2.56850 0.26899 2.00000 0 0 0 -0.77105 -0.90238 -0.59868 1.26567 -3.67115 -3.67115 -3.67115 1 0 0 0
-2.84908 1.04401 0.60000 0 0 0 -0.63308 -0.78251 -0.43696 1.26567 -3.62127 -3.62127 -3.62127 1 0 0 0
-2.68742 1.04127 0.60000 0 0 0 -0.77228 -0.90345 -0.60011 1.26567 -3.67160 -3.67160 -3.67160 1 0 0 0
-2.78065 0.18155 2.00000 0 0 0 -0.44589 -0.61987 -0.21755 1.26567 -3.55733 -3.55733 -3.55733 1 0 0 0
-2.55000 1.19795 1.00488 0 0 0 -0.31823 -0.50895 -0.06791 1.26567 -3.51596 -3.51596 -3.51596 1 0 0 0
-2.56351 1.36480 0.60000 0 0 0 -0.41486 -0.59290 -0.18117 1.26567 -3.54712 -3.54712 -3.54712 1 0 0 0
-2.81665 1.90000 1.10815 0 0 0 -0.37624 -0.55935 -0.13591 1.26567 -3.53455 -3.53455 -3.53455 1 0 0 0
-2.55378 0.00000 1.76625 0 0 0 -0.08851 -0.30936 0.20135 1.26567 -3.44558 -3.44558 -3.44558 1 0 0 0
-2.88598 0.63043 2.00000 0 0 0 -0.09141 -0.31188 0.19795 1.26567 -3.44644 -3.44644 -3.44644 1 0 0 0
-2.86030 0.30019 2.00000 0 0 0 -0.78892 -0.91791 -0.61963 1.26567 -3.67780 -3.67780 -3.67780 1 0 0 0
-2.72138 1.11246 0.60000 0 0 0 -0.72727 -0.86435 -0.54736 1.26567 -3.65505 -3.65505 -3.65505 1 0 0 0
-2.55000 0.06740 1.41320 0 0 0 -0.82092 -0.94571 -0.65713 1.26567 -3.68981 -3.68981 -3.68981 1 0 0 0
-2.93309 1.90000 1.74199 0 0 0 -0.51514 -0.68003 -0.29872 1.26567 -3.58051 -3.58051 -3.58051 1 0 0 0
-2.80543 1.90000 1.46511 0 0 0 -0.12207 -0.33852 0.16201 1.26567 -3.45556 -3.45556 -3.45556 1 0 0 0
-2.61616 0.00000 1.10667 0 0 0 -0.77309 -0.90415 -0.60107 1.26567 -3.67191 -3.67191 -3.67191 1 0 0 0
-2.92434 0.00000 0.98606 0 0 0 -0.82892 -0.95266 -0.66651 1.26567 -3.69284 -3.69284 -3.69284 1 0 0 0
-2.55000 0.44809 1.56723 0 0 0 -0.49072 -0.65882 -0.27010 1.26567 -3.57228 -3.57228 -3.57228 1 0 0 0
-2.55000 0.16433 1.11752 0 0 0 -0.24329 -0.44384 0.01992 1.26567 -3.49245 -3.49245 -3.49245 1 0 0 0
-2.55000 1.32520 0.77795 0 0 0 -0.54486 -0.70585 -0.33355 1.26567 -3.59062 -3.59062 -3.59062 1 0 0 0
-2.87494 1.83611 2.00000 0 0 0 -0.52178 -0.68580 -0.30650 1.26567 -3.58276 -3.58276 -3.58276 1 0 0 0
-2.86121 0.00000 1.31974 0 0 0 -0.44530 -0.61935 -0.21685 1.26567 -3.55714 -3.55714 -3.55714 1 0 0 0
-2.69475 1.90000 0.93413 0 0 0 -0.59570 -0.75003 -0.39315 1.26567 -3.60817 -3.60817 -3.60817 1 0 0 0
-2.60858 0.00000 0.94271 0 0 0 -0.11532 -0.33265 0.16992 1.26567 -3.45354 -3.45354 -3.45354 1 0 0 0
-2.67142 1.22498 2.00000 0 0 0 -0.11513 -0.33248 0.17015 1.26567 -3.45348 -3.45348 -3.45348 1 0 0 0
-2.55000 0.02229 0.64326 0 0 0 -0.18923 -0.39687 0.08329 1.26567 -3.47583 -3.47583 -3.47583 1 0 0 0
-2.95000 1.20902 1.32303 0 0 0 -0.64429 -0.79224 -0.45010 1.26567 -3.62522 -3.62522 -3.62522 1 0 0 0
-2.83962 0.00000 1.42501 0 0 0 -0.62912 -0.77906 -0.43231 1.26567 -3.61987 -3.61987 -3.61987 1 0 0 0
-2.55000 1.02004 0.71699 0 0 0 -0.46007 -0.63219 -0.23417 1.26567 -3.56204 -3.56204 -3.56204 1 0 0 0
-2.82460 0.00000 1.64573 0 0 0 -0.82472 -0.94902 -0.66159 1.26567 -3.69125 -3.69125 -3.69125 1 0 0 0
-2.55000 1.16226 0.96460 0 0 0 -0.50437 -0.67067 -0.28609 1.26567 -3.57687 -3.57687 -3.57687 1 0 0 0
-2.80626 1.90000 1.20028 0 0 0 -0.14506 -0.35849 0.13506 1.26567 -3.46245 -3.46245 -3.46245 1 0 0 0
-2.77386 0.00000 0.79861 0 0 0 -0.66745 -0.81237 -0.47724 1.26567 -3.63346 -3.63346 -3.63346 1 0 0 0
-2.62862 1.90000 1.22534 0 0 0 -0.56557 -0.72385 -0.35783 1.26567 -3.59773 -3.59773 -3.59773 1 0 0 0
-2.60811 1.90000 1.18284 0 0 0 -0.73193 -0.86839 -0.55282 1.26567 -3.65675 -3.65675 -3.65675 1 0 0 0
-2.60426 1.39612 0.60000 0 0 0 -0.40779 -0.58676 -0.17289 1.26567 -3.54481 -3.54481 -3.54481 1 0 0 0
-2.88264 0.39383 2.00000 0 0 0 -0.47472 -0.64491 -0.25134 1.26567 -3.56692 -3.56692 -3.56692 1 0 0 0
-2.72001 1.90000 1.72500 0 0 0 -0.67947 -0.82281 -0.49133 1.26567 -3.63776 -3.63776 -3.63776 1 0 0 0
-2.76961 1.90000 1.80677 0 0 0 -0.28097 -0.47658 -0.02424 1.26567 -3.50421 -3.50421 -3.50421 1 0 0 0
-2.67077 1.90000 1.81470 0 0 0 -0.57507 -0.73211 -0.36897 1.26567 -3.60101 -3.60101 -3.60101 1 0 0 0
-2.55000 0.41652 0.98605 0 0 0 -0.40415 -0.58360 -0.16862 1.26567 -3.54362 -3.54362 -3.54362 1 0 0 0
-2.76294 0.21230 2.00000 0 0 0 -0.60709 -0.75993 -0.40650 1.26567 -3.61214 -3.61214 -3.61214 1 0 0 0
-2.68613 0.00000 1.46270 0 0 0 -0.30790 -0.49998 -0.05581 1.26567 -3.51269 -3.51269 -3.51269 1 0 0 0
-2.86122 1.01070 2.00000 0 0 0 -0.35026 -0.53678 -0.10546 1.26567 -3.52618 -3.52618 -3.52618 1 0 0 0
-2.55000 0.30860 1.38932 0 0 0 -0.19604 -0.40278 0.07531 1.26567 -3.47791 -3.47791 -3.47791 1 0 0 0
-2.67471 1.34468 2.00000 0 0 0 -0.47861 -0.64829 -0.25590 1.26567 -3.56822 -3.56822 -3.56822 1 0 0 0
-2.92660 0.00000 1.89692 0 0 0 -0.41606 -0.59395 -0.18258 1.26567 -3.54751 -3.54751 -3.54751 1 0 0 0
-2.94050 0.00000 1.26615 0 0 0 -0.75583 -0.88916 -0.58084 1.26567 -3.66552 -3.66552 -3.66552 1 0 0 0
-2.88780 1.46216 0.60000 0 0 0 -0.25472 -0.45377 0.00652 1.26567 -3.49601 -3.49601 -3.49601 1 0 0 0
-2.68452 0.00000 1.35970 0 0 0 -0.77834 -0.90872 -0.60723 1.26567 -3.67386 -3.67386 -3.67386 1 0 0 0
-2.75632 0.97623 2.00000 0 0 0 -0.50782 -0.67368 -0.29014 1.26567 -3.57804 -3.57804 -3.57804 1 0 0 0
-2.72294 1.90000 1.63291 0 0 0 -0.55551 -0.71511 -0.34603 1.26567 -3.59427 -3.59427 -3.59427 1 0 0 0
-2.88646 0.70033 0.60000 0 0 0 -0.53237 -0.69501 -0.31892 1.26567 -3.58636 -3.58636 -3.58636 1 0 0 0
-2.78416 1.90000 0.89066 0 0 0 -0.42330 -0.60024 -0.19107 1.26567 -3.54989 -3.54989 -3.54989 1 0 0 0
-2.85306 0.00000 1.15032 0 0 0 -0.45739 -0.62986 -0.23103 1.26567 -3.56114 -3.56114 -3.56114 1 0 0 0
-2.55000 1.48019 1.55952 0 0 0 -0.29379 -0.48772 -0.03927 1.26567 -3.50824 -3.50824 -3.50824 1 0 0 0
-2.71934 0.43899 2.00000 0 0 0 -0.63661 -0.78557 -0.44109 1.26567 -3.62251 -3.62251 -3.62251 1 0 0 0
-2.70934 1.90000 0.92564 0 0 0 -0.42176 -0.59890 -0.18926 1.26567 -3.54938 -3.54938 -3.54938 1 0 0 0
-2.95000 0.18667 0.77704 0 0 0 -0.63864 -0.78734 -0.44348 1.26567 -3.62323 -3.62323 -3.62323 1 0 0 0
-2.55000 0.77444 1.67247 0 0 0 -0.60179 -0.75532 -0.40029 1.26567 -3.61029 -3.61029 -3.61029 1 0 0 0
-2.87174 1.90000 1.68296 0 0 0 -0.15869 -0.37033 0.11909 1.26567 -3.46656 -3.46656 -3.46656 1 0 0 0
-2.86875 0.65682 0.60000 0 0 0 -0.32748 -0.51699 -0.07876 1.26567 -3.51891 -3.51891 -3.51891 1 0 0 0
-2.67433 0.05347 2.00000 0 0 0 -0.28841 -0.48304 -0.03296 1.26567 -3.50654 -3.50654 -3.50654 1 0 0 0
-2.95000 1.18458 1.83294 0 0 0 -0.41109 -0.58963 -0.17676 1.26567 -3.54589 -3.54589 -3.54589 1 0 0 0
-2.83523 1.11130 0.60000 0 0 0 -0.55301 -0.71294 -0.34311 1.26567 -3.59342 -3.59342 -3.59342 1 0 0 0
-2.55000 0.91010 0.95953 0 0 0 -0.83603 -0.95884 -0.67484 1.26567 -3.69553 -3.69553 -3.69553 1 0 0 0
-2.83055 0.00000 1.65358 0 0 0 -0.11669 -0.33384 0.16832 1.26567 -3.45395 -3.45395 -3.45395 1 0 0 0
-2.55000 0.94143 1.06452 0 0 0 -0.33381 -0.52248 -0.08617 1.26567 -3.52092 -3.52092 -3.52092 1 0 0 0
-2.95000 0.98944 1.33460 0 0 0 -0.49943 -0.66638 -0.28030 1.26567 -3.57520 -3.57520 -3.57520 1 0 0 0
-2.55000 0.39932 1.35139 0 0 0 -0.48421 -0.65316 -0.26246 1.26567 -3.57009 -3.57009 -3.57009 1 0 0 0
-2.75323 1.90000 1.04645 0 0 0 -0.30120 -0.49415 -0.04795 1.26567 -3.51057 -3.51057 -3.51057 1 0 0 0
-2.55000 0.52957 1.82809 0 0 0 -0.44223 -0.61668 -0.21325 1.26567 -3.55612 -3.55612 -3.55612 1 0 0 0
-2.74596 1.90000 1.84874 0 0 0 -0.23074 -0.43293 0.03464 1.26567 -3.48857 -3.48857 -3.48857 1 0 0 0
-2.55000 1.05036 1.02060 0 0 0 -0.39889 -0.57903 -0.16246 1.26567 -3.54190 -3.54190 -3.54190 1 0 0 0
-2.78755 0.00000 1.61116 0 0 0 -0.36019 -0.54540 -0.11709 1.26567 -3.52937 -3.52937 -3.52937 1 0 0 0
-2.59987 1.53526 2.00000 0 0 0 -0.20414 -0.40982 0.06582 1.26567 -3.48039 -3.48039 -3.48039 1 0 0 0
-2.67974 0.33755 2.00000 0 0 0 -0.66280 -0.80833 -0.47179 1.26567 -3.63180 -3.63180 -3.63180 1 0 0 0
-2.68951 1.26131 0.60000 0 0 0 -0.21934 -0.42303 0.04800 1.26567 -3.48506 -3.48506 -3.48506 1 0 0 0
-2.95000 0.19659 1.45376 0 0 0 -0.26410 -0.46191 -0.00446 1.26567 -3.49893 -3.49893 -3.49893 1 0 0 0
-2.92271 0.00000 0.74588 0 0 0 -0.69828 -0.83916 -0.51339 1.26567 -3.64453 -3.64453 -3.64453 1 0 0 0
-2.55000 0.33699 1.82287 0 0 0 -0.64573 -0.79349 -0.45178 1.26567 -3.62573 -3.62573 -3.62573 1 0 0 0
-2.90562 1.90000 1.27463 0 0 0 -0.30803 -0.50008 -0.05595 1.26567 -3.51273 -3.51273 -3.51273 1 0 0 0
-2.69082 1.90000 1.14175 0 0 0 -0.48707 -0.65564 -0.26581 1.26567 -3.57105 -3.57105 -3.57105 1 0 0 0
-2.60505 0.56235 2.00000 0 0 0 -0.26321 -0.46115 -0.00343 1.26567 -3.49865 -3.49865 -3.49865 1 0 0 0
-2.81599 0.55301 2.00000 0 0 0 -0.74840 -0.88270 -0.57212 1.26567 -3.66279 -3.66279 -3.66279 1 0 0 0
-2.55000 1.89442 1.96297 0 0 0 -0.77020 -0.90165 -0.59768 1.26567 -3.67083 -3.67083 -3.67083 1 0 0 0
-2.87223 1.90000 1.12911 0 0 0 -0.40268 -0.58232 -0.16690 1.26567 -3.54314 -3.54314 -3.54314 1 0 0 0
-2.90843 1.90000 0.80564 0 0 0 -0.44253 -0.61695 -0.21361 1.26567 -3.55622 -3.55622 -3.55622 1 0 0 0
-2.55000 1.52502 1.02856 0 0 0 -0.37402 -0.55742 -0.13330 1.26567 -3.53383 -3.53383 -3.53383 1 0 0 0
-2.95000 1.44472 0.81735 0 0 0 -0.49948 -0.66642 -0.28036 1.26567 -3.57522 -3.57522 -3.57522 1 0 0 0
-2.66490 1.90000 0.90888 0 0 0 -0.64377 -0.79179 -0.44948 1.26567 -3.62504 -3.62504 -3.62504 1 0 0 0
-2.70329 1.90000 1.24076 0 0 0 -0.27990 -0.47565 -0.02299 1.26567 -3.50387 -3.50387 -3.50387 1 0 0 0
-2.95000 0.90974 1.00790 0 0 0 -0.52788 -0.69111 -0.31365 1.26567 -3.58483 -3.58483 -3.58483 1 0 0 0
-2.95000 1.45832 0.85349 0 0 0 -0.32704 -0.51660 -0.07823 1.26567 -3.51876 -3.51876 -3.51876 1 0 0 0
-2.55378 1.05449 0.60000 0 0 0 -0.39150 -0.57260 -0.15379 1.26567 -3.53950 -3.53950 -3.53950 1 0 0 0
-2.65763 0.00000 0.87064 0 0 0 -0.53980 -0.70146 -0.32762 1.26567 -3.58889 -3.58889 -3.58889 1 0 0 0
-2.81312 0.92476 0.60000 0 0 0 -0.41376 -0.59195 -0.17989 1.26567 -3.54676 -3.54676 -3.54676 1 0 0 0
-2.95000 0.67356 1.09354 0 0 0 -0.25349 -0.45269 0.00798 1.26567 -3.49562 -3.49562 -3.49562 1 0 0 0
-2.64747 1.90000 0.89898 0 0 0 -0.29961 -0.49277 -0.04609 1.26567 -3.51007 -3.51007 -3.51007 1 0 0 0
-2.55000 0.28533 1.20494 0 0 0 -0.22826 -0.43078 0.03754 1.26567 -3.48781 -3.48781 -3.48781 1 0 0 0
-2.86500 0.22231 2.00000 0 0 0 -0.18768 -0.39552 0.08511 1.26567 -3.47536 -3.47536 -3.47536 1 0 0 0
-2.55000 0.18032 1.08995 0 0 0 -0.71476 -0.85348 -0.53270 1.26567 -3.65050 -3.65050 -3.65050 1 0 0 0
-2.59475 0.53124 0.60000 0 0 0 -0.65866 -0.80473 -0.46694 1.26567 -3.63033 -3.63033 -3.63033 1 0 0 0
-2.95000 1.00129 1.04049 0 0 0 -0.15033 -0.36306 0.12889 1.26567 -3.46404 -3.46404 -3.46404 1 0 0 0
-2.55000 0.21703 0.87075 0 0 0 -0.19206 -0.39933 0.07997 1.26567 -3.47670 -3.47670 -3.47670 1 0 0 0
-2.95000 0.30703 1.27473 0 0 0 -0.50468 -0.67095 -0.28646 1.26567 -3.57698 -3.57698 -3.57698 1 0 0 0
-2.55000 0.75711 1.41981 0 0 0 -0.68413 -0.82686 -0.49680 1.26567 -3.63943 -3.63943 -3.63943 1 0 0 0
-2.75786 1.84852 2.00000 0 0 0 -0.78763 -0.91679 -0.61811 1.26567 -3.67731 -3.67731 -3.67731 1 0 0 0
-2.95000 0.24993 0.69717 0 0 0 -0.70065 -0.84122 -0.51616 1.26567 -3.64538 -3.64538 -3.64538 1 0 0 0
-2.93098 1.89370 2.00000 0 0 0 -0.33564 -0.52408 -0.08832 1.26567 -3.52151 -3.52151 -3.52151 1 0 0 0
-2.95000 1.23763 1.21482 0 0 0 -0.41446 -0.59255 -0.18070 1.26567 -3.54699 -3.54699 -3.54699 1 0 0 0
-2.69517 1.08870 2.00000 0 0 0 -0.37118 -0.55495 -0.12998 1.26567 -3.53292 -3.53292 -3.53292 1 0 0 0
-2.70057 1.90000 1.20856 0 0 0 -0.57970 -0.73612 -0.37439 1.26567 -3.60261 -3.60261 -3.60261 1 0 0 0
-2.89408 0.00000 1.51165 0 0 0 -0.37310 -0.55662 -0.13222 1.26567 -3.53353 -3.53353 -3.53353 1 0 0 0
-2.55000 0.03375 1.46443 0 0 0 -0.38537 -0.56728 -0.14661 1.26567 -3.53751 -3.53751 -3.53751 1 0 0 0
-2.59158 0.75955 0.60000 0 0 0 -0.54210 -0.70346 -0.33031 1.26567 -3.58968 -3.58968 -3.58968 1 0 0 0
-2.74475 1.36430 0.60000 0 0 0 -0.30628 -0.49856 -0.05391 1.26567 -3.51218 -3.51218 -3.51218 1 0 0 0
-2.86903 0.00000 1.35246 0 0 0 -0.70712 -0.84684 -0.52375 1.26567 -3.64773 -3.64773 -3.64773 1 0 0 0
-2.95000 0.47055 1.26910 0 0 0 -0.67984 -0.82313 -0.49177 1.26567 -3.63789 -3.63789 -3.63789 1 0 0 0
-2.66014 1.90000 1.59247 0 0 0 -0.74354 -0.87848 -0.56643 1.26567 -3.66100 -3.66100 -3.66100 1 0 0 0
-2.62088 1.81757 0.60000 0 0 0 -0.33620 -0.52456 -0.08897 1.26567 -3.52168 -3.52168 -3.52168 1 0 0 0
-2.55000 0.19915 1.02853 0 0 0 -0.13342 -0.34838 0.14871 1.26567 -3.45896 -3.45896 -3.45896 1 0 0 0
-2.81297 0.76009 0.60000 0 0 0 -0.28164 -0.47716 -0.02503 1.26567 -3.50442 -3.50442 -3.50442 1 0 0 0
-2.94237 1.60645 0.60000 0 0 0 -0.61076 -0.76311 -0.41079 1.26567 -3.61342 -3.61342 -3.61342 1 0 0 0
-2.71253 1.90000 0.81166 0 0 0 -0.45879 -0.63108 -0.23267 1.26567 -3.56161 -3.56161 -3.56161 1 0 0 0
-2.75266 1.90000 1.62158 0 0 0 -0.83574 -0.95859 -0.67450 1.26567 -3.69542 -3.69542 -3.69542 1 0 0 0
-2.55000 0.33469 1.82522 0 0 0 -0.09133 -0.31180 0.19805 1.26567 -3.44641 -3.44641 -3.44641 1 0 0 0
-2.55000 0.21733 1.23047 0 0 0 -0.26609 -0.46365 -0.00680 1.26567 -3.49955 -3.49955 -3.49955 1 0 0 0
-2.65999 0.53055 0.60000 0 0 0 -0.19367 -0.40073 0.07808 1.26567 -3.47719 -3.47719 -3.47719 1 0 0 0
-2.91661 0.44582 2.00000 0 0 0 -0.81753 -0.94277 -0.65316 1.26567 -3.68853 -3.68853 -3.68853 1 0 0 0
-2.60945 0.49294 2.00000 0 0 0 -0.83358 -0.95671 -0.67197 1.26567 -3.69460 -3.69460 -3.69460 1 0 0 0
-2.55000 0.49182 1.77377 0 0 0 -0.49234 -0.66022 -0.27199 1.26567 -3.57282 -3.57282 -3.57282 1 0 0 0
-2.95000 1.04515 0.70877 0 0 0 -0.64233 -0.79054 -0.44780 1.26567 -3.62453 -3.62453 -3.62453 1 0 0 0
-2.62802 0.73382 0.60000 0 0 0 -0.33722 -0.52544 -0.09017 1.26567 -3.52201 -3.52201 -3.52201 1 0 0 0
-2.60567 0.81086 2.00000 0 0 0 -0.08570 -0.30691 0.20464 1.26567 -3.44475 -3.44475 -3.44475 1 0 0 0
-2.55080 1.90000 1.87862 0 0 0 -0.38383 -0.56595 -0.14481 1.26567 -3.53701 -3.53701 -3.53701 1 0 0 0
-2.95000 0.95701 0.99445 0 0 0 -0.80815 -0.93462 -0.64216 1.26567 -3.68500 -3.68500 -3.68500 1 0 0 0
-2.55000 1.10112 1.84122 0 0 0 -0.59886 -0.75277 -0.39684 1.26567 -3.60927 -3.60927 -3.60927 1 0 0 0
-2.80846 1.21445 0.60000 0 0 0 -0.77732 -0.90783 -0.60603 1.26567 -3.67348 -3.67348 -3.67348 1 0 0 0
-2.55000 0.92751 1.42621 0 0 0 -0.64668 -0.79433 -0.45290 1.26567 -3.62607 -3.62607 -3.62607 1 0 0 0
-2.95000 1.86281 0.90023 0 0 0 -0.65064 -0.79777 -0.45755 1.26567 -3.62748 -3.62748 -3.62748 1 0 0 0
-2.55946 0.00000 1.64950 0 0 0 -0.58423 -0.74006 -0.37970 1.26567 -3.60418 -3.60418 -3.60418 1 0 0 0
-2.95000 1.15351 1.15083 0 0 0 -0.24375 -0.44424 0.01939 1.26567 -3.49260 -3.49260 -3.49260 1 0 0 0
-2.78210 0.52765 2.00000 0 0 0 -0.31073 -0.50244 -0.05913 1.26567 -3.51359 -3.51359 -3.51359 1 0 0 0
-2.62935 1.90000 1.45267 0 0 0 -0.25269 -0.45200 0.00891 1.26567 -3.49537 -3.49537 -3.49537 1 0 0 0
-2.59549 1.90000 1.43159 0 0 0 -0.08014 -0.30208 0.21116 1.26567 -3.44310 -3.44310 -3.44310 1 0 0 0
-2.95000 1.82808 1.83108 0 0 0 -0.69076 -0.83262 -0.50456 1.26567 -3.64182 -3.64182 -3.64182 1 0 0 0
-2.71904 1.90000 0.79727 0 0 0 -0.42182 -0.59895 -0.18933 1.26567 -3.54940 -3.54940 -3.54940 1 0 0 0
-2.75066 1.90000 1.74773 0 0 0 -0.62315 -0.77388 -0.42532 1.26567 -3.61777 -3.61777 -3.61777 1 0 0 0
-2.82187 0.70381 0.60000 0 0 0 -0.27376 -0.47031 -0.01579 1.26567 -3.50195 -3.50195 -3.50195 1 0 0 0
-2.95000 0.36377 1.79916 0 0 0 -0.45911 -0.63135 -0.23304 1.26567 -3.56171 -3.56171 -3.56171 1 0 0 0
-2.95000 0.55054 1.03605 0 0 0 -0.37768 -0.56060 -0.13760 1.26567 -3.53502 -3.53502 -3.53502 1 0 0 0
-2.60958 1.90000 1.77978 0 0 0 -0.57940 -0.73587 -0.37404 1.26567 -3.60251 -3.60251 -3.60251 1 0 0 0
-2.95000 0.12961 1.13182 0 0 0 -0.50954 -0.67517 -0.29215 1.26567 -3.57862 -3.57862 -3.57862 1 0 0 0
-2.58459 0.00000 1.03282 0 0 0 -0.17068 -0.38075 0.10504 1.26567 -3.47019 -3.47019 -3.47019 1 0 0 0
-2.55000 0.25530 1.47126 0 0 0 -0.23579 -0.43732 0.02872 1.26567 -3.49013 -3.49013 -3.49013 1 0 0 0
-2.55000 1.53700 1.24144 0 0 0 -0.23405 -0.43581 0.03075 1.26567 -3.48959 -3.48959 -3.48959 1 0 0 0
-2.60198 1.77349 2.00000 0 0 0 -0.68404 -0.82678 -0.49669 1.26567 -3.63940 -3.63940 -3.63940 1 0 0 0
-2.83246 1.90000 0.95139 0 0 0 -0.22210 -0.42543 0.04476 1.26567 -3.48591 -3.48591 -3.48591 1 0 0 0
-2.95000 1.51759 1.13873 0 0 0 -0.53898 -0.70075 -0.32666 1.26567 -3.58862 -3.58862 -3.58862 1 0 0 0
-2.80020 0.00000 1.86215 0 0 0 -0.39587 -0.57641 -0.15892 1.26567 -3.54092 -3.54092 -3.54092 1 0 0 0
-2.65961 1.28275 0.60000 0 0 0 -0.80099 -0.92840 -0.63377 1.26567 -3.68231 -3.68231 -3.68231 1 0 0 0
-2.68162 0.93591 0.60000 0 0 0 -0.22755 -0.43016 0.03838 1.26567 -3.48759 -3.48759 -3.48759 1 0 0 0
-2.79488 1.90000 1.38675 0 0 0 -0.56768 -0.72568 -0.36030 1.26567 -3.59846 -3.59846 -3.59846 1 0 0 0
-2.72735 0.81514 2.00000 0 0 0 -0.60766 -0.76042 -0.40716 1.26567 -3.61234 -3.61234 -3.61234 1 0 0 0
-2.82611 1.90000 1.43180 0 0 0 -0.45256 -0.62566 -0.22536 1.26567 -3.55954 -3.55954 -3.55954 1 0 0 0
-2.79073 1.90000 1.73861 0 0 0 -0.17415 -0.38376 0.10097 1.26567 -3.47124 -3.47124 -3.47124 1 0 0 0
-2.55000 1.85021 1.86330 0 0 0 -0.08094 -0.30278 0.21022 1.26567 -3.44334 -3.44334 -3.44334 1 0 0 0
-2.75453 0.24538 0.60000 0 0 0 -0.60720 -0.76002 -0.40662 1.26567 -3.61218 -3.61218 -3.61218 1 0 0 0
-2.60441 0.48793 0.60000 0 0 0 -0.58708 -0.74254 -0.38304 1.26567 -3.60517 -3.60517 -3.60517 1 0 0 0
-2.95000 0.16551 0.81850 0 0 0 -0.77676 -0.90734 -0.60537 1.26567 -3.67327 -3.67327 -3.67327 1 0 0 0
-2.82786 1.90000 1.33309 0 0 0 -0.77328 -0.90432 -0.60129 1.26567 -3.67198 -3.67198 -3.67198 1 0 0 0
-2.86696 1.90000 1.09820 0 0 0 -0.42364 -0.60053 -0.19146 1.26567 -3.55000 -3.55000 -3.55000 1 0 0 0
-2.76019 1.39344 2.00000 0 0 0 -0.29564 -0.48932 -0.04144 1.26567 -3.50882 -3.50882 -3.50882 1 0 0 0
-2.95000 0.28113 1.00490 0 0 0 -0.40613 -0.58532 -0.17094 1.26567 -3.54426 -3.54426 -3.54426 1 0 0 0
-2.55000 1.21445 0.91761 0 0 0 -0.09018 -0.31080 0.19940 1.26567 -3.44607 -3.44607 -3.44607 1 0 0 0
-2.95000 1.03324 1.91002 0 0 0 -0.49468 -0.66226 -0.27473 1.26567 -3.57361 -3.57361 -3.57361 1 0 0 0
-2.86503 0.00000 1.39049 0 0 0 -0.23310 -0.43498 0.03187 1.26567 -3.48930 -3.48930 -3.48930 1 0 0 0
-2.72073 0.00000 1.17140 0 0 0 -0.48437 -0.65330 -0.26265 1.26567 -3.57015 -3.57015 -3.57015 1 0 0 0
-2.67982 0.00000 1.78701 0 0 0 -0.77622 -0.90687 -0.60474 1.26567 -3.67307 -3.67307 -3.67307 1 0 0 0
-2.55000 1.87088 0.64400 0 0 0 -0.53198 -0.69466 -0.31845 1.26567 -3.58623 -3.58623 -3.58623 1 0 0 0
-2.60518 1.86216 0.60000 0 0 0 -0.23311 -0.43499 0.03185 1.26567 -3.48930 -3.48930 -3.48930 1 0 0 0
-2.57287 0.00000 0.69299 0 0 0 -0.35594 -0.54171 -0.11211 1.26567 -3.52801 -3.52801 -3.52801 1 0 0 0
-2.95000 0.90316 0.72722 0 0 0 -0.51281 -0.67801 -0.29599 1.26567 -3.57972 -3.57972 -3.57972 1 0 0 0
-2.55000 0.76149 1.73007 0 0 0 -0.20886 -0.41392 0.06028 1.26567 -3.48184 -3.48184 -3.48184 1 0 0 0
-2.95000 0.64056 0.93575 0 0 0 -0.62982 -0.77967 -0.43313 1.26567 -3.62011 -3.62011 -3.62011 1 0 0 0
-2.60957 0.63668 0.60000 0 0 0 -0.47102 -0.64170 -0.24700 1.26567 -3.56568 -3.56568 -3.56568 1 0 0 0
-2.95000 0.58504 1.36315 0 0 0 -0.32982 -0.51902 -0.08150 1.26567 -3.51965 -3.51965 -3.51965 1 0 0 0
-2.77444 0.00000 1.41771 0 0 0 -0.55538 -0.71499 -0.34588 1.26567 -3.59423 -3.59423 -3.59423 1 0 0 0
-2.82904 0.00000 1.51826 0 0 0 -0.38429 -0.56634 -0.14534 1.26567 -3.53716 -3.53716 -3.53716 1 0 0 0
-2.55000 0.98008 0.64873 0 0 0 -0.65047 -0.79761 -0.45734 1.26567 -3.62742 -3.62742 -3.62742 1 0 0 0
-2.55000 0.19223 0.83647 0 0 0 -0.14316 -0.35684 0.13729 1.26567 -3.46188 -3.46188 -3.46188 1 0 0 0
-2.55000 0.81767 0.70730 0 0 0 -0.70446 -0.84453 -0.52063 1.26567 -3.64676 -3.64676 -3.64676 1 0 0 0
-2.66376 1.83445 0.60000 0 0 0 -0.42435 -0.60115 -0.19230 1.26567 -3.55023 -3.55023 -3.55023 1 0 0 0
-2.61503 1.90000 1.46288 0 0 0 -0.31149 -0.50309 -0.06001 1.26567 -3.51383 -3.51383 -3.51383 1 0 0 0
-2.95000 1.30657 1.22935 0 0 0 -0.78014 -0.91028 -0.60934 1.26567 -3.67452 -3.67452 -3.67452 1 0 0 0
-2.55000 1.75370 1.28746 0 0 0 -0.10814 -0.32641 0.17834 1.26567 -3.45140 -3.45140 -3.45140 1 0 0 0
-2.60688 0.40629 0.60000 0 0 0 -0.16004 -0.37151 0.11750 1.26567 -3.46697 -3.46697 -3.46697 1 0 0 0
-2.88574 0.00000 1.23352 0 0 0 -0.26826 -0.46553 -0.00934 1.26567 -3.50023 -3.50023 -3.50023 1 0 0 0
-2.78238 0.00000 0.80228 0 0 0 -0.32134 -0.51165 -0.07155 1.26567 -3.51695 -3.51695 -3.51695 1 0 0 0
-2.69118 0.80926 0.60000 0 0 0 -0.76861 -0.90027 -0.59582 1.26567 -3.67025 -3.67025 -3.67025 1 0 0 0
-2.90011 0.00000 0.93539 0 0 0 -0.41056 -0.58917 -0.17613 1.26567 -3.54571 -3.54571 -3.54571 1 0 0 0
